  17.045    1.579   -9.529
  16.486    2.183  -10.766
  18.385    0.972   -9.750
  16.029    0.632   -8.761
  16.396   -0.756   -8.582
  15.491   -1.421   -7.533
  15.621   -0.711   -6.268
  13.991   -1.379   -7.897
  13.406   -2.682   -7.639
  13.394   -0.387   -6.903
  14.307   -0.588   -5.682
  14.310    0.458   -4.645
  14.352   -0.046   -3.323
  14.428   -1.229   -3.054
  14.312    0.815   -2.253
  14.266    2.142   -2.544
  14.209    2.854   -1.562
  14.299    2.649   -3.914
  14.308    4.147   -4.141
  14.343    1.798   -4.994
  12.448   -3.309   -8.748
  13.188   -3.754   -9.951
  11.225   -2.514   -8.973
  11.964   -4.634   -7.974
  12.815   -5.764   -7.801
  12.487   -6.555   -6.517
  12.833   -5.782   -5.368
  11.019   -6.987   -6.378
  10.993   -8.348   -5.954
  10.470   -6.032   -5.325
  11.698   -5.573   -4.538
  11.619   -4.131   -4.176
  11.550   -3.048   -5.023
  11.437   -1.895   -4.425
  11.448   -2.234   -3.069
  11.371   -1.472   -1.870
  11.231   -0.155   -1.839
  11.418   -2.102   -0.676
  11.548   -3.430   -0.658
  11.664   -4.266   -1.700
  11.587   -3.595   -2.903
   9.651   -9.244   -5.904
  10.072  -10.667   -5.877
   8.704   -8.787   -6.941
   9.027   -8.883   -4.462
   9.717   -9.205   -3.259
   9.082   -8.584   -2.010
   9.321   -7.185   -1.973
   7.570   -8.826   -1.866
   7.363   -9.699   -0.750
   7.002   -7.422   -1.662
   8.222   -6.552   -1.344
   8.096   -5.171   -1.876
   7.947   -4.783   -3.183
   7.890   -3.494   -3.371
   8.007   -2.980   -2.075
   8.037   -1.661   -1.539
   7.965   -0.564   -2.279
   8.166   -1.489   -0.204
   8.292   -2.569    0.572
   8.284   -3.855    0.206
   8.134   -3.999   -1.154
   5.905  -10.233   -0.280
   6.108  -11.526    0.404
   4.967  -10.160   -1.413
   5.455   -9.153    0.822
   6.207   -8.983    2.019
   6.108   -7.553    2.568
   6.185   -6.573    1.544
   4.805   -7.296    3.328
   4.998   -7.467    4.734
   4.450   -5.861    2.945
   5.586   -5.387    2.044
   5.098   -4.495    0.943
   5.119   -3.092    1.136
   5.324   -2.540    2.227
   4.906   -2.321    0.016
   4.660   -2.788   -1.257
   4.656   -1.984   -2.192
   4.464   -4.247   -1.348
   4.045   -4.899   -2.659
   4.677   -5.038   -0.259
   3.764   -7.501    5.781
   4.234   -8.123    7.038
   2.570   -8.053    5.106
   3.491   -5.957    6.062
   4.451   -5.122    6.699
   3.961   -3.665    6.692
   3.897   -3.164    5.358
   2.572   -3.509    7.333
   2.663   -2.647    8.466
   1.711   -2.933    6.211
   2.725   -2.373    5.219
   2.256   -2.386    3.792
   2.260   -1.175    3.062
   2.480   -0.063    3.562
   2.012   -1.272    1.710
   1.685   -2.418    1.022
   1.537   -2.361   -0.201
   1.564   -3.620    1.862
   1.110   -4.940    1.265
   1.856   -3.570    3.191
   1.442   -2.437    9.500
   1.999   -1.917   10.766
   0.614   -3.661    9.523
   0.581   -1.286    8.818
   1.085    0.026    8.578
   0.142    0.777    7.614
   0.217    0.215    6.301
  -1.337    0.699    8.045
  -1.963    1.970    7.976
  -1.959   -0.208    7.001
  -1.108    0.143    5.792
  -1.239   -0.796    4.647
  -1.356   -2.168    4.628
  -1.453   -2.686    3.430
  -1.425   -1.568    2.584
  -1.504   -1.440    1.140
  -1.573   -2.329    0.287
  -1.478   -0.122    0.699
  -1.405    0.964    1.527
  -1.480    2.155    0.986
  -1.293    0.877    2.854
  -1.308   -0.411    3.331
  -2.576    2.664    9.272
  -1.471    3.305   10.015
  -3.426    1.672    9.971
  -3.532    3.805    8.638
  -2.982    5.008    8.088
  -3.539    5.357    6.698
  -3.294    4.274    5.809
  -5.038    5.708    6.670
  -5.203    7.065    6.234
  -5.618    4.710    5.676
  -4.413    4.094    4.965
  -4.597    2.643    4.706
  -4.778    1.632    5.619
  -4.927    0.445    5.091
  -4.826    0.687    3.716
  -4.882   -0.144    2.560
  -5.040   -1.460    2.595
  -4.772    0.410    1.336
  -4.601    1.733    1.246
  -4.503    2.624    2.239
  -4.626    2.029    3.473
  -6.643    7.819    6.127
  -6.397    9.273    6.201
  -7.598    7.204    7.068
  -7.138    7.483    4.624
  -6.446    8.013    3.499
  -6.652    7.188    2.221
  -6.234    5.835    2.386
  -8.087    7.110    1.696
  -8.490    8.277    0.976
  -7.965    5.905    0.776
  -6.883    5.037    1.396
  -7.483    3.813    1.986
  -7.806    3.572    3.296
  -8.143    2.339    3.549
  -8.093    1.723    2.292
  -8.278    0.387    1.837
  -8.496   -0.641    2.640
  -8.206    0.117    0.514
  -7.940    1.118   -0.329
  -7.717    2.406   -0.040
  -7.789    2.645    1.317
 -10.019    8.497    0.468
 -10.131    9.879   -0.053
 -10.949    8.045    1.530
 -10.156    7.481   -0.778
  -9.381    7.641   -1.965
  -9.701    6.558   -3.016
  -9.538    5.255   -2.454
 -11.124    6.655   -3.584
 -11.066    6.524   -5.005
 -11.849    5.488   -2.929
 -10.725    4.488   -2.643
 -10.976    3.645   -1.428
 -11.097    2.243   -1.569
 -11.052    1.650   -2.646
 -11.281    1.517   -0.415
 -11.342    2.025    0.863
 -11.473    1.238    1.800
 -11.223    3.494    0.947
 -11.264    4.213    2.286
 -11.054    4.239   -0.179
 -12.316    6.859   -5.978
 -11.770    7.164   -7.317
 -13.192    7.849   -5.323
 -13.114    5.462   -6.055
 -12.552    4.321   -6.699
 -13.188    3.007   -6.216
 -13.064    2.859   -4.807
 -14.685    2.845   -6.550
 -14.859    1.778   -7.463
 -15.811    1.629   -7.605
 -15.328    2.480   -5.215
 -14.127    2.024   -4.388
 -14.356    2.092   -2.912
 -14.426    0.880   -2.189
 -14.411   -0.241   -2.709
 -14.536    0.983   -0.824
 -14.645    2.147   -0.100
 -14.766    2.070    1.128
 -14.599    3.380   -0.910
 -14.677    4.750   -0.255
 -14.475    3.313   -2.266
 -17.502   -8.716    4.752
 -18.386   -9.877    4.498
 -16.681   -8.918    5.965
 -16.639   -8.276    3.487
 -16.966   -8.852    2.201
 -15.937   -8.439    1.129
 -15.825   -6.990    1.112
 -14.512   -8.974    1.401
 -13.824   -9.211    0.149
 -13.807   -7.779    2.019
 -14.431   -6.617    1.238
 -14.314   -5.286    1.820
 -13.931   -4.909    3.098
 -13.950   -3.560    3.251
 -14.373   -3.135    2.046
 -14.599   -1.836    1.620
 -14.421   -0.754    2.390
 -15.004   -1.566    0.378
 -15.100   -2.631   -0.447
 -14.916   -3.923   -0.120
 -14.573   -4.152    1.164
 -14.023  -10.580   -0.626
 -15.437  -10.886   -0.937
 -13.225  -11.688   -0.066
 -13.306  -10.214   -2.022
 -13.930   -9.370   -2.989
 -13.085   -8.148   -3.395
 -13.119   -7.123   -2.411
 -11.605   -8.429   -3.705
 -11.428   -8.457   -5.123
 -10.879   -7.275   -3.001
 -11.996   -6.296   -2.646
 -11.690   -5.466   -1.453
 -11.365   -5.889   -0.185
 -11.210   -4.924    0.681
 -11.418   -3.764   -0.076
 -11.402   -2.369    0.228
 -11.193   -1.876    1.440
 -11.610   -1.469   -0.758
 -11.845   -1.918   -1.994
 -11.912   -3.188   -2.417
 -11.688   -4.083   -1.390
 -10.001   -8.676   -5.847
 -10.247   -9.154   -7.224
  -9.108   -9.464   -4.963
  -9.415   -7.182   -5.946
 -10.138   -6.161   -6.628
  -9.662   -4.752   -6.244
  -9.754   -4.526   -4.840
  -8.219   -4.449   -6.670
  -8.271   -3.616   -7.830
  -7.627   -3.771   -5.429
  -8.818   -3.513   -4.504
  -8.457   -3.556   -3.043
  -8.355   -2.345   -2.316
  -8.451   -1.224   -2.816
  -8.119   -2.452   -0.964
  -7.935   -3.618   -0.259
  -7.759   -3.556    0.962
  -7.983   -4.841   -1.077
  -7.757   -6.205   -0.447
  -8.243   -4.771   -2.413
  -6.970   -3.107   -8.644
  -7.416   -2.708  -10.001
  -5.881   -4.101   -8.507
  -6.547   -1.785   -7.847
  -7.418   -0.658   -7.763
  -6.901    0.390   -6.766
  -6.924   -0.132   -5.448
  -5.460    0.837   -7.037
  -5.425    2.028   -7.826
  -4.882    1.057   -5.644
  -5.948    0.547   -4.672
  -5.384   -0.370   -3.632
  -5.169    0.128   -2.328
  -5.194    1.325   -2.031
  -4.907   -0.807   -1.352
  -4.749   -2.159   -1.548
  -4.593   -2.892   -0.568
  -4.806   -2.588   -2.955
  -4.532   -4.033   -3.339
  -5.119   -1.695   -3.936
  -4.113    2.452   -8.673
  -4.526    3.436   -9.696
  -3.414    1.231   -9.113
  -3.187    3.198   -7.596
  -3.567    4.454   -7.040
  -2.827    4.780   -5.728
  -2.901    3.674   -4.828
  -1.339    5.128   -5.887
  -0.996    6.132   -4.925
  -0.655    3.817   -5.524
  -1.587    3.327   -4.413
  -1.507    1.873   -4.043
  -1.681    1.516   -2.682
  -1.838    2.376   -1.804
  -1.662    0.204   -2.323
  -1.439   -0.737   -3.230
  -1.389   -1.976   -2.810
  -1.255   -0.428   -4.616
  -1.291    0.883   -4.984
   0.128    7.242   -5.205
  -0.537    8.433   -5.769
   1.254    6.624   -5.931
   0.653    7.608   -3.733
  -0.170    8.253   -2.762
   0.457    8.212   -1.347
   0.377    6.882   -0.841
   1.936    8.631   -1.272
   2.196    9.259   -0.016
   2.674    7.300   -1.347
   1.678    6.316   -0.725
   1.680    4.960   -1.342
   1.687    4.601   -2.672
   1.679    3.311   -2.879
   1.678    2.767   -1.592
   1.689    1.437   -1.074
   1.742    0.341   -1.817
   1.663    1.248    0.262
   1.639    2.317    1.063
   1.620    3.608    0.717
   1.654    3.770   -0.649
   3.370   10.348    0.198
   2.749   11.687    0.247
   4.467   10.103   -0.773
   3.890   10.007    1.690
   4.918    9.055    1.956
   4.380    7.786    2.645
   4.064    6.798    1.674
   5.426    7.174    3.586
   4.986    7.277    4.932
   5.548    5.721    3.163
   4.421    5.510    2.162
   4.845    4.635    1.035
   5.171    5.010   -0.244
   5.329    4.021   -1.077
   5.142    2.890   -0.275
   5.116    1.489   -0.533
   5.214    0.963   -1.743
   4.964    0.624    0.494
   4.795    1.120    1.723
   4.756    2.401    2.100
   4.931    3.256    1.037
   5.985    7.536    6.170
   5.197    8.220    7.215
   7.233    8.172    5.676
   6.300    6.047    6.709
   7.483    5.329    6.375
   7.203    3.812    6.389
   6.889    3.383    5.066
   8.396    2.967    6.874
   7.935    2.035    7.855
   8.891    2.276    5.609
   7.653    2.234    4.725
   8.001    2.228    3.269
   7.967    1.009    2.555
   7.784   -0.098    3.069
   8.167    1.087    1.199
   8.408    2.228    0.475
   8.492    2.136   -0.751
   8.528    3.454    1.284
   8.861    4.790    0.639
   8.331    3.412    2.631
   8.916    1.233    8.854
   8.069    0.676    9.934
  10.059    2.111    9.206
   9.465    0.036    7.932
   9.623   -1.299    8.405
  10.574   -2.083    7.471
  10.336   -1.743    6.095
  12.060   -1.784    7.751
  12.861   -2.940    7.562
  12.412   -0.824    6.637
  11.589   -1.437    5.493
  11.450   -0.616    4.242
  11.105   -1.294    3.045
  10.801   -2.495    2.983
  11.138   -0.551    1.886
  11.443    0.789    1.788
  11.433    1.321    0.681
  11.740    1.451    3.067
  12.085    2.931    3.121
  11.724    0.747    4.229
  13.188   -3.969    8.725
  11.924   -4.515    9.264
  14.148   -3.329    9.647
  13.949   -5.143    7.934
  13.282   -5.921    6.935
  13.888   -5.734    5.529
  13.640   -4.436    5.003
  15.410   -5.933    5.464
  15.740   -7.236    5.020
  15.928   -7.786    5.798
  15.873   -4.898    4.445
  14.583   -4.225    3.965
  14.777   -2.777    3.688
  15.103   -1.772    4.569
  15.197   -0.584    4.025
  14.925   -0.822    2.670
  14.867    0.006    1.508
  15.046    1.319    1.502
  14.624   -0.552    0.310
  14.436   -1.871    0.242
  14.435   -2.760    1.241
  14.688   -2.164    2.455
