18.317 2.005 -9.797
17.758 2.609 -11.034
19.657 1.398 -10.018
17.301 1.058 -9.029
17.668 -0.33 -8.85
16.763 -0.995 -7.801
16.893 -0.285 -6.536
15.263 -0.953 -8.165
14.678 -2.256 -7.907
14.666 0.039 -7.171
15.579 -0.162 -5.95
15.582 0.884 -4.913
15.624 0.38 -3.591
15.7 -0.803 -3.322
15.584 1.241 -2.521
15.538 2.568 -2.812
15.481 3.28 -1.83
15.571 3.075 -4.182
15.58 4.573 -4.409
15.615 2.224 -5.262
13.72 -2.883 -9.016
14.46 -3.328 -10.219
12.497 -2.088 -9.241
13.236 -4.208 -8.242
14.087 -5.338 -8.069
13.759 -6.129 -6.785
14.105 -5.356 -5.636
12.291 -6.561 -6.646
12.265 -7.922 -6.222
11.742 -5.606 -5.593
12.97 -5.147 -4.806
12.891 -3.705 -4.444
12.822 -2.622 -5.291
12.709 -1.469 -4.693
12.72 -1.808 -3.337
12.643 -1.046 -2.138
12.503 0.271 -2.107
12.69 -1.676 -0.944
12.82 -3.004 -0.926
12.936 -3.84 -1.968
12.859 -3.169 -3.171
10.923 -8.818 -6.172
11.344 -10.241 -6.145
9.976 -8.361 -7.209
10.299 -8.457 -4.73
10.989 -8.779 -3.527
10.354 -8.158 -2.278
10.593 -6.759 -2.241
8.842 -8.4 -2.134
8.635 -9.273 -1.018
8.274 -6.996 -1.93
9.494 -6.126 -1.612
9.368 -4.745 -2.144
9.219 -4.357 -3.451
9.162 -3.068 -3.639
9.279 -2.554 -2.343
9.309 -1.235 -1.807
9.237 -0.138 -2.547
9.438 -1.063 -0.472
9.564 -2.143 0.304
9.556 -3.429 -0.062
9.406 -3.573 -1.422
7.177 -9.807 -0.548
7.38 -11.1 0.136
6.239 -9.734 -1.681
6.727 -8.727 0.554
7.479 -8.557 1.751
7.38 -7.127 2.3
7.457 -6.147 1.276
6.077 -6.87 3.06
6.27 -7.041 4.466
5.722 -5.435 2.677
6.858 -4.961 1.776
6.37 -4.069 0.675
6.391 -2.666 0.868
6.596 -2.114 1.959
6.178 -1.895 -0.252
5.932 -2.362 -1.525
5.928 -1.558 -2.46
5.736 -3.821 -1.616
5.317 -4.473 -2.927
5.949 -4.612 -0.527
5.036 -7.075 5.513
5.506 -7.697 6.77
3.842 -7.627 4.838
4.763 -5.531 5.794
5.723 -4.696 6.431
5.233 -3.239 6.424
5.169 -2.738 5.09
3.844 -3.083 7.065
3.935 -2.221 8.198
2.983 -2.507 5.943
3.997 -1.947 4.951
3.528 -1.96 3.524
3.532 -0.749 2.794
3.752 0.363 3.294
3.284 -0.846 1.442
2.957 -1.992 0.754
2.809 -1.935 -0.469
2.836 -3.194 1.594
2.382 -4.514 0.997
3.128 -3.144 2.923
2.714 -2.011 9.232
3.271 -1.491 10.498
1.886 -3.235 9.255
1.853 -0.86 8.55
2.357 0.452 8.31
1.414 1.203 7.346
1.489 0.641 6.033
-0.065 1.125 7.777
-0.691 2.396 7.708
-0.687 0.218 6.733
0.164 0.569 5.524
0.033 -0.37 4.379
-0.084 -1.742 4.36
-0.181 -2.26 3.162
-0.153 -1.142 2.316
-0.232 -1.014 0.872
-0.301 -1.903 0.019
-0.206 0.304 0.431
-0.133 1.39 1.259
-0.208 2.581 0.718
-0.021 1.303 2.586
-0.036 0.015 3.063
-1.304 3.09 9.004
-0.199 3.731 9.747
-2.154 2.098 9.703
-2.26 4.231 8.37
-1.71 5.434 7.82
-2.267 5.783 6.43
-2.022 4.7 5.541
-3.766 6.134 6.402
-3.931 7.491 5.966
-4.346 5.136 5.408
-3.141 4.52 4.697
-3.325 3.069 4.438
-3.506 2.058 5.351
-3.655 0.871 4.823
-3.554 1.113 3.448
-3.61 0.282 2.292
-3.768 -1.034 2.327
-3.5 0.836 1.068
-3.329 2.159 0.978
-3.231 3.05 1.971
-3.354 2.455 3.205
-5.371 8.245 5.859
-5.125 9.699 5.933
-6.326 7.63 6.8
-5.866 7.909 4.356
-5.174 8.439 3.231
-5.38 7.614 1.953
-4.962 6.261 2.118
-6.815 7.536 1.428
-7.218 8.703 0.708
-6.693 6.331 0.508
-5.611 5.463 1.128
-6.211 4.239 1.718
-6.534 3.998 3.028
-6.871 2.765 3.281
-6.821 2.149 2.024
-7.006 0.813 1.569
-7.224 -0.215 2.372
-6.934 0.543 0.246
-6.668 1.544 -0.597
-6.445 2.832 -0.308
-6.517 3.071 1.049
-8.747 8.923 0.2
-8.859 10.305 -0.321
-9.677 8.471 1.262
-8.884 7.907 -1.046
-8.109 8.067 -2.233
-8.429 6.984 -3.284
-8.266 5.681 -2.722
-9.852 7.081 -3.852
-9.794 6.95 -5.273
-10.577 5.914 -3.197
-9.453 4.914 -2.911
-9.704 4.071 -1.696
-9.825 2.669 -1.837
-9.78 2.076 -2.914
-10.009 1.943 -0.683
-10.07 2.451 0.595
-10.201 1.664 1.532
-9.951 3.92 0.679
-9.992 4.639 2.018
-9.782 4.665 -0.447
-11.044 7.285 -6.246
-10.498 7.59 -7.585
-11.92 8.275 -5.591
-11.842 5.888 -6.323
-11.28 4.747 -6.967
-11.916 3.433 -6.484
-11.792 3.285 -5.075
-13.413 3.271 -6.818
-13.587 2.204 -7.731
-14.539 2.055 -7.873
-14.056 2.906 -5.483
-12.855 2.45 -4.656
-13.084 2.518 -3.18
-13.154 1.306 -2.457
-13.139 0.185 -2.977
-13.264 1.409 -1.092
-13.373 2.573 -0.368
-13.494 2.496 0.86
-13.327 3.806 -1.178
-13.405 5.176 -0.523
-13.203 3.739 -2.534
-16.23 -8.29 4.484
-17.114 -9.451 4.23
-15.409 -8.492 5.697
-15.367 -7.85 3.219
-15.694 -8.426 1.933
-14.665 -8.013 0.861
-14.553 -6.564 0.844
-13.24 -8.548 1.133
-12.552 -8.785 -0.119
-12.535 -7.353 1.751
-13.159 -6.191 0.97
-13.042 -4.86 1.552
-12.659 -4.483 2.83
-12.678 -3.134 2.983
-13.101 -2.709 1.778
-13.327 -1.41 1.352
-13.149 -0.328 2.122
-13.732 -1.14 0.11
-13.828 -2.205 -0.715
-13.644 -3.497 -0.388
-13.301 -3.726 0.896
-12.751 -10.154 -0.894
-14.165 -10.46 -1.205
-11.953 -11.262 -0.334
-12.034 -9.788 -2.29
-12.658 -8.944 -3.257
-11.813 -7.722 -3.663
-11.847 -6.697 -2.679
-10.333 -8.003 -3.973
-10.156 -8.031 -5.391
-9.607 -6.849 -3.269
-10.724 -5.87 -2.914
-10.418 -5.04 -1.721
-10.093 -5.463 -0.453
-9.938 -4.498 0.413
-10.146 -3.338 -0.344
-10.13 -1.943 -0.04
-9.921 -1.45 1.172
-10.338 -1.043 -1.026
-10.573 -1.492 -2.262
-10.64 -2.762 -2.685
-10.416 -3.657 -1.658
-8.729 -8.25 -6.115
-8.975 -8.728 -7.492
-7.836 -9.038 -5.231
-8.143 -6.756 -6.214
-8.866 -5.735 -6.896
-8.39 -4.326 -6.512
-8.482 -4.1 -5.108
-6.947 -4.023 -6.938
-6.999 -3.19 -8.098
-6.355 -3.345 -5.697
-7.546 -3.087 -4.772
-7.185 -3.13 -3.311
-7.083 -1.919 -2.584
-7.179 -0.798 -3.084
-6.847 -2.026 -1.232
-6.663 -3.192 -0.527
-6.487 -3.13 0.694
-6.711 -4.415 -1.345
-6.485 -5.779 -0.715
-6.971 -4.345 -2.681
-5.698 -2.681 -8.912
-6.144 -2.282 -10.269
-4.609 -3.675 -8.775
-5.275 -1.359 -8.115
-6.146 -0.232 -8.031
-5.629 0.816 -7.034
-5.652 0.294 -5.716
-4.188 1.263 -7.305
-4.153 2.454 -8.094
-3.61 1.483 -5.912
-4.676 0.973 -4.94
-4.112 0.056 -3.9
-3.897 0.554 -2.596
-3.922 1.751 -2.299
-3.635 -0.381 -1.62
-3.477 -1.733 -1.816
-3.321 -2.466 -0.836
-3.534 -2.162 -3.223
-3.26 -3.607 -3.607
-3.847 -1.269 -4.204
-2.841 2.878 -8.941
-3.254 3.862 -9.964
-2.142 1.657 -9.381
-1.915 3.624 -7.864
-2.295 4.88 -7.308
-1.555 5.206 -5.996
-1.629 4.1 -5.096
-0.067 5.554 -6.155
0.276 6.558 -5.193
0.617 4.243 -5.792
-0.315 3.753 -4.681
-0.235 2.299 -4.311
-0.409 1.942 -2.95
-0.566 2.802 -2.072
-0.39 0.63 -2.591
-0.167 -0.311 -3.498
-0.117 -1.55 -3.078
0.017 -0.002 -4.884
-0.019 1.309 -5.252
1.4 7.668 -5.473
0.735 8.859 -6.037
2.526 7.05 -6.199
1.925 8.034 -4.001
1.102 8.679 -3.03
1.729 8.638 -1.615
1.649 7.308 -1.109
3.208 9.057 -1.54
3.468 9.685 -0.284
3.946 7.726 -1.615
2.95 6.742 -0.993
2.952 5.386 -1.61
2.959 5.027 -2.94
2.951 3.737 -3.147
2.95 3.193 -1.86
2.961 1.863 -1.342
3.014 0.767 -2.085
2.935 1.674 -0.006
2.911 2.743 0.795
2.892 4.034 0.449
2.926 4.196 -0.917
4.642 10.774 -0.07
4.021 12.113 -0.021
5.739 10.529 -1.041
5.162 10.433 1.422
6.19 9.481 1.688
5.652 8.212 2.377
5.336 7.224 1.406
6.698 7.6 3.318
6.258 7.703 4.664
6.82 6.147 2.895
5.693 5.936 1.894
6.117 5.061 0.767
6.443 5.436 -0.512
6.601 4.447 -1.345
6.414 3.316 -0.543
6.388 1.915 -0.801
6.486 1.389 -2.011
6.236 1.05 0.226
6.067 1.546 1.455
6.028 2.827 1.832
6.203 3.682 0.769
7.257 7.962 5.902
6.469 8.646 6.947
8.505 8.598 5.408
7.572 6.473 6.441
8.755 5.755 6.107
8.475 4.238 6.121
8.161 3.809 4.798
9.668 3.393 6.606
9.207 2.461 7.587
10.163 2.702 5.341
8.925 2.66 4.457
9.273 2.654 3.001
9.239 1.435 2.287
9.056 0.328 2.801
9.439 1.513 0.931
9.68 2.654 0.207
9.764 2.562 -1.019
9.8 3.88 1.016
10.133 5.216 0.371
9.603 3.838 2.363
10.188 1.659 8.586
9.341 1.102 9.666
11.331 2.537 8.938
10.737 0.462 7.664
10.895 -0.873 8.137
11.846 -1.657 7.203
11.608 -1.317 5.827
13.332 -1.358 7.483
14.133 -2.514 7.294
13.684 -0.398 6.369
12.861 -1.011 5.225
12.722 -0.19 3.974
12.377 -0.868 2.777
12.073 -2.069 2.715
12.41 -0.125 1.618
12.715 1.215 1.52
12.705 1.747 0.413
13.012 1.877 2.799
13.357 3.357 2.853
12.996 1.173 3.961
14.46 -3.543 8.457
13.196 -4.089 8.996
15.42 -2.903 9.379
15.221 -4.717 7.666
14.554 -5.495 6.667
15.16 -5.308 5.261
14.912 -4.01 4.735
16.682 -5.507 5.196
17.012 -6.81 4.752
17.2 -7.36 5.53
17.145 -4.472 4.177
15.855 -3.799 3.697
16.049 -2.351 3.42
16.375 -1.346 4.301
16.469 -0.158 3.757
16.197 -0.396 2.402
16.139 0.432 1.24
16.318 1.745 1.234
15.896 -0.126 0.042
15.708 -1.445 -0.026
15.707 -2.334 0.973
15.96 -1.738 2.187
