   1.300    9.273   13.933
   2.400    9.205   14.920
   2.215    7.977   15.772
   1.100    7.449   15.815
   2.399   10.444   15.842
   2.271   11.762   15.086
   1.297   10.350   16.744
   3.252    7.514   16.455
   3.143    6.316   17.286
   2.050    6.445   18.344
   1.281    5.511   18.534
   4.497    6.015   17.961
   4.527    4.674   18.663
   5.521    5.998   16.961
   1.916    7.603   18.978
   0.876    7.812   19.995
  -0.535    7.667   19.443
  -1.418    7.085   20.081
   0.948    9.225   20.587
   2.005    9.375   21.666
   2.344    8.385   22.346
   2.507   10.502   21.870
  -0.763    8.205   18.254
  -2.097    8.163   17.664
  -2.428    6.722   17.310
  -3.508    6.222   17.623
  -2.155    9.018   16.399
  -1.937   10.509   16.603
  -1.795   11.240   15.285
  -2.392   12.385   15.182
  -1.152   10.763   14.355
  -1.468    6.038   16.703
  -1.657    4.651   16.294
  -1.882    3.791   17.529
  -2.809    2.989   17.547
  -0.445    4.163   15.449
  -0.502    2.664   15.162
  -0.395    4.925   14.112
  -1.109    3.998   18.587
  -1.241    3.200   19.807
  -2.608    3.379   20.441
  -3.237    2.421   20.880
  -0.158    3.611   20.813
   0.000    2.695   22.019
   0.655    1.385   21.622
   0.810    0.454   22.809
   1.429   -0.824   22.345
  -3.103    4.605   20.448
  -4.407    4.873   21.043
  -5.532    4.204   20.262
  -6.472    3.660   20.851
  -4.637    6.377   21.107
  -3.564    6.993   21.802
  -5.428    4.209   18.940
  -6.424    3.556   18.092
  -6.328    2.041   18.224
  -7.350    1.367   18.273
  -6.203    3.940   16.627
  -6.417    5.406   16.220
  -5.821    5.600   14.843
  -7.877    5.836   16.201
  -5.118    1.510   18.326
  -4.907    0.072   18.502
  -5.506   -0.396   19.818
  -6.207   -1.401   19.872
  -3.411   -0.257   18.526
  -2.765   -0.328   17.159
  -1.284   -0.650   17.187
  -0.626   -0.484   18.232
  -0.754   -1.098   16.141
  -5.270    0.356   20.882
  -5.810    0.005   22.193
  -7.334    0.023   22.181
  -7.983   -0.849   22.753
  -5.246    0.973   23.240
  -5.585    0.635   24.685
  -4.888   -0.643   25.153
  -5.207   -0.954   26.602
  -6.652   -1.310   26.793
  -7.918    0.987   21.486
  -9.376    1.044   21.382
  -9.918   -0.101   20.529
 -11.018   -0.585   20.775
  -9.833    2.381   20.794
  -9.611    3.532   21.735
  -9.445    4.702   21.196
  -9.561    3.371   22.946
  -9.155   -0.557   19.548
  -9.572   -1.671   18.699
  -9.492   -3.004   19.445
 -10.302   -3.911   19.246
  -8.694   -1.699   17.451
  -9.141   -2.695   16.426
 -10.172   -2.377   15.531
  -8.542   -3.963   16.357
 -10.611   -3.314   14.576
  -8.976   -4.915   15.410
 -10.014   -4.586   14.513
  -8.549   -3.109   20.371
  -8.490   -4.267   21.263
  -9.694   -4.298   22.195
 -10.126   -5.370   22.620
  -7.235   -4.239   22.131
  -5.940   -4.500   21.397
  -4.751   -4.438   22.331
  -4.934   -4.344   23.565
  -3.603   -4.503   21.852
 -10.262   -3.145   22.517
 -11.499   -3.128   23.292
 -12.685   -3.510   22.410
 -13.488   -4.359   22.796
 -11.741   -1.755   23.926
 -13.011   -1.610   24.783
 -13.056   -2.560   25.982
 -13.125   -0.174   25.269
 -12.810   -2.908   21.237
 -13.945   -3.169   20.350
 -13.556   -2.931   18.890
 -12.944   -1.914   18.579
 -15.088   -2.234   20.756
 -16.432   -2.525   20.113
 -17.509   -1.582   20.627
 -17.179   -0.515   21.192
 -18.716   -1.869   20.476
 -13.887   -3.850   17.992
 -13.450   -3.736   16.596
 -14.185   -2.647   15.815
 -13.652   -2.116   14.846
 -13.623   -5.055   15.822
 -12.571   -6.089   16.154
 -12.266   -6.926   15.208
 -12.050   -6.153   17.252
 -15.410   -2.318   16.206
 -16.185   -1.274   15.521
 -16.116    0.021   16.319
 -15.899   -0.016   17.533
 -17.638   -1.724   15.314
 -18.480   -1.857   16.583
 -19.880   -2.330   16.233
 -20.790   -2.314   17.449
 -22.170   -2.808   17.130
 -16.317    1.163   15.676
 -16.268    2.450   16.374
 -17.420    3.352   15.957
 -17.652    3.573   14.774
 -14.925    3.138   16.123
 -14.620    4.361   17.002
 -14.453    3.995   18.480
 -13.349    5.030   16.530
 -18.186    3.839   16.918
 -19.333    4.695   16.609
 -18.907    6.108   16.208
 -17.872    6.589   16.665
 -20.275    4.740   17.810
 -20.961    3.406   18.046
 -21.751    2.957   16.824
 -22.709    3.655   16.425
 -21.406    1.926   16.203
 -19.679    6.792   15.341
 -19.215    8.108   14.879
 -18.988    9.184   15.930
 -18.077    9.990   15.780
 -20.319    8.551   13.919
 -20.925    7.299   13.471
 -20.951    6.438   14.685
 -19.751    9.196   17.013
 -19.492   10.153   18.089
 -18.116    9.887   18.704
 -17.341   10.802   18.966
 -20.594   10.038   19.146
 -20.503   11.029   20.301
 -20.769   12.470   19.897
 -21.421   12.743   18.862
 -20.329   13.371   20.642
 -17.767    8.619   18.864
 -16.454    8.246   19.393
 -15.359    8.577   18.385
 -14.277    9.007   18.768
 -16.437    6.759   19.755
 -17.442    6.389   20.839
 -17.570    4.884   21.034
 -18.627    4.607   22.017
 -19.073    3.420   22.402
 -18.646    2.288   21.917
 -20.013    3.376   23.298
 -15.640    8.465   17.092
 -14.668    8.885   16.072
 -14.383   10.374   16.203
 -13.237   10.782   16.086
 -15.148    8.637   14.637
 -15.410    7.197   14.248
 -15.997    7.137   12.851
 -16.542    5.752   12.550
 -17.232    5.705   11.225
 -15.402   11.181   16.467
 -15.213   12.623   16.644
 -14.419   12.931   17.906
 -13.551   13.800   17.901
 -16.560   13.339   16.757
 -17.496   13.355   15.546
 -18.861   13.859   15.975
 -16.942   14.215   14.418
 -14.687   12.209   18.983
 -13.929   12.400   20.219
 -12.454   12.085   19.984
 -11.581   12.872   20.355
 -14.466   11.492   21.326
 -15.852   11.851   21.852
 -16.352   10.843   22.865
 -17.161   11.284   23.786
 -15.987    9.671   22.831
 -12.156   10.972   19.330
 -10.762   10.629   19.056
 -10.136   11.583   18.053
  -8.967   11.910   18.173
 -10.628    9.194   18.544
 -11.052    8.069   19.502
 -10.843    6.729   18.808
 -10.293    8.081   20.830
 -10.902   12.079   17.094
 -10.386   13.061   16.148
  -9.951   14.332   16.883
  -8.876   14.881   16.625
 -11.455   13.380   15.105
 -10.765   14.793   17.823
 -10.409   15.975   18.609
  -9.236   15.728   19.535
  -8.422   16.625   19.737
 -11.583   16.453   19.461
 -12.688   17.111   18.666
 -13.700   17.761   19.593
 -14.449   16.795   20.407
 -15.556   16.163   20.049
 -16.127   16.274   18.881
 -16.139   15.400   20.920
  -9.146   14.545   20.117
  -8.054   14.259   21.043
  -6.736   14.097   20.292
  -5.721   14.711   20.621
  -8.347   12.978   21.835
  -7.291   12.688   22.890
  -7.515   11.396   23.652
  -8.550   10.712   23.493
  -6.616   11.029   24.438
  -6.740   13.242   19.284
  -5.508   12.824   18.628
  -5.034   13.818   17.585
  -3.879   13.783   17.175
  -5.718   11.448   17.983
  -6.061   10.288   18.935
  -6.313    9.006   18.149
  -4.957   10.052   19.961
  -5.915   14.701   17.143
  -5.549   15.650   16.104
  -5.611   15.017   14.729
  -4.946   15.443   13.784
  -6.410   13.967   14.619
  -6.633   13.274   13.352
  -7.916   13.847   12.779
  -8.742   14.366   13.518
  -6.828   11.771   13.574
  -5.604   10.944   13.991
  -6.031    9.515   14.288
  -4.541   10.937   12.899
  -8.125   13.730   11.482
  -9.422   14.079   10.914
 -10.383   12.917   11.181
  -9.940   11.766   11.201
  -9.277   14.318    9.411
  -8.353   15.479    9.069
  -8.811   16.770    9.707
  -7.930   17.430   10.402
  -9.972   17.147    9.607
 -11.695   13.169   11.361
 -12.592   12.015   11.534
 -12.579   10.986   10.401
 -12.715    9.796   10.677
 -13.978   12.658   11.640
 -13.715   14.020   12.132
 -12.444   14.436   11.448
 -12.335   11.393    9.156
 -12.167   10.421    8.065
 -11.009    9.487    8.368
 -11.130    8.291    8.181
 -11.886   11.103    6.718
 -11.779   10.118    5.527
 -11.161   10.737    4.278
  -9.787   11.182    4.551
  -8.680   10.454    4.522
  -8.597    9.238    4.054
  -7.613   10.986    5.036
  -9.898   10.006    8.868
  -8.743    9.154    9.145
  -9.089    8.143   10.222
  -8.684    6.994   10.135
  -7.545    9.962    9.639
  -6.973   10.931    8.638
  -5.789   11.662    9.214
  -4.619   11.111    9.062
  -5.940   12.709    9.840
  -9.858    8.552   11.223
 -10.239    7.645   12.308
 -11.174    6.564   11.755
 -11.033    5.380   12.080
 -10.919    8.417   13.483
 -11.279    7.477   14.633
  -9.998    9.523   14.024
 -12.092    6.957   10.880
 -13.014    6.013   10.258
 -12.261    4.992    9.403
 -12.456    3.786    9.563
 -14.048    6.768    9.400
 -11.386    5.484    8.537
 -10.594    4.650    7.632
  -9.676    3.757    8.450
  -9.521    2.582    8.126
  -9.801    5.534    6.617
  -8.801    4.728    5.785
 -10.773    6.237    5.651
  -9.136    4.253    9.555
  -8.301    3.408   10.401
  -9.102    2.240   10.922
  -8.671    1.113   10.782
  -7.691    4.148   11.593
  -6.202    4.232   11.481
  -5.337    3.188   11.394
  -5.389    5.414   11.341
  -4.041    4.980   11.195
  -5.660    6.797   11.305
  -4.053    3.615   11.226
  -2.978    5.880   10.984
  -4.599    7.702   11.048
  -3.268    7.228   10.882
 -10.270    2.467   11.499
 -11.024    1.340   12.038
 -11.529    0.398   10.954
 -11.486   -0.813   11.134
 -12.135    1.824   12.962
 -11.689    1.903   14.392
 -10.829    2.927   14.832
 -12.059    0.890   15.289
 -10.302    2.904   16.151
 -11.553    0.864   16.605
 -10.662    1.864   17.032
 -11.891    0.914    9.790
 -12.271    0.053    8.670
 -11.084   -0.813    8.227
 -11.229   -2.015    7.998
 -12.769    0.926    7.516
 -14.132    1.572    7.775
 -14.466    2.651    6.766
 -15.663    2.639    6.252
 -13.638    3.488    6.442
  -9.889   -0.244    8.179
  -8.704   -1.015    7.804
  -8.320   -2.009    8.891
  -7.913   -3.126    8.599
  -7.506   -0.094    7.552
  -7.605    0.659    6.251
  -6.879    1.731    6.149
  -8.313    0.267    5.328
  -8.470   -1.636   10.153
  -8.165   -2.548   11.258
  -9.107   -3.734   11.248
  -8.678   -4.855   11.470
  -8.254   -1.828   12.602
  -7.149   -0.825   12.806
  -7.346    0.026   14.058
  -6.352    1.112   14.091
  -5.048    0.965   14.293
  -4.476   -0.187   14.478
  -4.259    1.996   14.215
 -10.370   -3.522   10.910
 -11.311   -4.637   10.774
 -10.889   -5.565    9.643
 -10.933   -6.782    9.806
 -12.730   -4.107   10.554
 -13.309   -3.447   11.796
 -14.537   -2.624   11.500
 -15.707   -3.427   11.123
 -16.886   -2.944   10.762
 -17.143   -1.666   10.658
 -17.848   -3.777   10.517
 -10.421   -5.024    8.527
  -9.944   -5.863    7.427
  -8.699   -6.667    7.831
  -8.588   -7.866    7.564
  -9.650   -4.987    6.207
  -7.769   -6.023    8.521
  -6.558   -6.695    9.002
  -6.899   -7.765   10.027
  -6.339   -8.858   10.012
  -5.614   -5.671    9.634
  -4.964   -4.718    8.636
  -4.234   -3.604    9.363
  -3.090   -4.114   10.131
  -2.522   -3.525   11.174
  -2.892   -2.356   11.634
  -1.551   -4.136   11.786
  -7.847   -7.487   10.904
  -8.265   -8.466   11.899
  -9.004   -9.640   11.279
  -8.883  -10.765   11.750
  -9.144   -7.805   12.950
  -9.233   -8.619   14.194
 -10.257   -9.417   14.589
  -8.233   -8.740   15.222
  -8.762   -9.599   16.225
  -6.940   -8.207   15.399
  -9.997   -9.999   15.797
  -8.055   -9.908   17.404
  -6.225   -8.512   16.586
  -6.801   -9.353   17.582
  -9.738   -9.411   10.197
 -10.376  -10.517    9.481
  -9.321  -11.377    8.800
  -9.442  -12.599    8.730
 -11.364  -10.007    8.432
 -12.278  -11.109    7.926
 -13.183  -10.634    6.822
 -14.143  -11.743    6.428
 -14.936  -11.344    5.231
  -8.278  -10.737    8.296
  -7.190  -11.453    7.632
  -6.441  -12.335    8.632
  -6.122  -13.489    8.328
  -6.216  -10.460    6.956
  -5.218  -11.165    6.061
  -6.961   -9.568    6.117
  -6.201  -11.806    9.826
  -5.556  -12.540   10.923
  -6.341  -13.782   11.328
  -5.407  -11.598   12.124
  -4.755  -12.222   13.350
  -4.732  -11.266   14.530
  -4.071  -11.957   15.712
  -4.009  -11.129   16.951
  -5.718  -14.831   11.572
  -7.581  -13.697   11.443
  18.433   -9.122  -15.059
  19.488   -9.095  -16.100
  19.358   -7.832  -16.906
  18.319   -7.182  -16.824
  19.345  -10.286  -17.058
  19.217  -11.606  -16.332
  18.174  -10.105  -17.853
  20.358   -7.473  -17.695
  20.299   -6.242  -18.480
  19.107   -6.204  -19.436
  18.433   -5.186  -19.528
  21.610   -6.058  -19.268
  21.797   -4.640  -19.758
  22.710   -6.360  -18.404
  18.781   -7.310  -20.092
  17.613   -7.344  -20.982
  16.302   -7.158  -20.229
  15.390   -6.504  -20.729
  17.521   -8.665  -21.757
  18.354   -8.669  -23.029
  18.988   -7.646  -23.367
  18.334   -9.687  -23.755
  16.195   -7.681  -19.016
  14.971   -7.497  -18.234
  14.816   -6.031  -17.839
  13.711   -5.497  -17.842
  14.990   -8.349  -16.964
  14.963   -9.849  -17.202
  15.138  -10.643  -15.927
  14.580  -11.818  -15.869
  15.794  -10.196  -14.996
  15.921   -5.367  -17.528
  15.864   -3.951  -17.163
  15.527   -3.139  -18.407
  14.639   -2.291  -18.373
  17.206   -3.451  -16.548
  17.154   -1.954  -16.219
  17.541   -4.222  -15.267
  16.197   -3.416  -19.520
  15.967   -2.665  -20.757
  14.531   -2.781  -21.204
  13.891   -1.778  -21.468
  16.831   -3.195  -21.901
  18.273   -2.747  -21.889
  18.997   -3.424  -23.030
  20.423   -2.941  -23.157
  21.112   -3.670  -24.263
  14.014   -3.992  -21.282
  12.658   -4.174  -21.776
  11.650   -3.500  -20.864
  10.744   -2.821  -21.342
  12.348   -5.658  -21.877
  12.680   -6.275  -20.650
  11.798   -3.636  -19.554
  10.825   -3.038  -18.653
  10.886   -1.512  -18.722
   9.851   -0.857  -18.745
  11.007   -3.575  -17.232
   9.744   -3.370  -16.385
   9.289   -4.679  -15.742
   9.936   -2.279  -15.351
  12.074   -0.943  -18.870
  12.211    0.497  -19.107
  11.596    0.938  -20.428
  10.972    1.990  -20.503
  13.681    0.898  -19.184
  14.419    0.956  -17.871
  15.886    1.287  -18.072
  16.358    1.335  -19.231
  16.597    1.565  -17.078
  11.770    0.162  -21.488
  11.215    0.517  -22.797
   9.699    0.445  -22.770
   9.016    1.223  -23.430
  11.766   -0.418  -23.878
  13.245   -0.216  -24.201
  13.510    1.054  -24.974
  14.994    1.183  -25.258
  15.300    2.391  -26.084
   9.157   -0.472  -21.988
   7.708   -0.569  -21.845
   7.160    0.522  -20.937
   6.076    1.037  -21.187
   7.325   -1.957  -21.338
   7.638   -3.021  -22.350
   8.190   -4.109  -21.915
   7.400   -2.842  -23.541
   7.923    0.910  -19.925
   7.545    2.021  -19.053
   7.566    3.336  -19.828
   6.766    4.247  -19.610
   8.501    2.095  -17.860
   8.100    3.123  -16.847
   7.069    2.844  -15.937
   8.717    4.386  -16.819
   6.618    3.826  -15.035
   8.277    5.383  -15.914
   7.212    5.103  -15.031
   8.486    3.426  -20.775
   8.568    4.579  -21.661
   7.320    4.667  -22.543
   6.814    5.762  -22.803
   9.848    4.480  -22.499
  10.184    5.727  -23.288
  11.519    5.634  -24.016
  12.170    4.561  -24.058
  11.943    6.667  -24.584
   6.774    3.533  -22.967
   5.532    3.540  -23.745
   4.327    3.907  -22.887
   3.511    4.732  -23.300
   5.262    2.174  -24.382
   6.172    1.735  -25.533
   5.927    0.261  -25.835
   5.952    2.567  -26.793
   4.202    3.327  -21.704
   3.108    3.659  -20.792
   3.572    3.420  -19.368
   4.256    2.443  -19.113
   1.872    2.807  -21.095
   0.617    3.234  -20.332
  -0.631    2.484  -20.774
  -0.711    2.089  -21.956
  -1.584    2.326  -19.974
   3.190    4.283  -18.437
   3.657    4.157  -17.055
   3.047    2.973  -16.307
   3.461    2.675  -15.197
   3.314    5.411  -16.242
   3.999    6.652  -16.739
   3.291    7.742  -16.698
   5.149    6.646  -17.144
   2.040    2.320  -16.872
   1.324    1.241  -16.192
   1.054    0.115  -17.176
   0.772    0.362  -18.348
   0.002    1.789  -15.643
  -0.791    0.810  -14.772
  -2.105    1.372  -14.246
  -3.136    1.554  -15.356
  -4.443    2.017  -14.804
   1.093   -1.114  -16.689
   0.671   -2.269  -17.467
  -0.630   -2.800  -16.899
  -0.787   -2.920  -15.692
   1.704   -3.388  -17.377
   3.097   -3.129  -17.948
   3.907   -4.404  -17.806
   3.119   -2.666  -19.403
  -1.536   -3.188  -17.778
  -2.688   -3.983  -17.374
  -2.199   -5.410  -17.102
  -1.158   -5.810  -17.638
  -3.727   -3.950  -18.496
  -4.404   -2.598  -18.617
  -5.128   -2.237  -17.329
  -6.067   -2.962  -16.935
  -4.761   -1.240  -16.669
  -2.911   -6.198  -16.273
  -2.401   -7.545  -15.970
  -2.099   -8.476  -17.146
  -1.135   -9.235  -17.084
  -3.510   -8.144  -15.106
  -4.157   -6.975  -14.475
  -4.159   -5.923  -15.532
  -2.836   -8.405  -18.245
  -2.512   -9.219  -19.422
  -1.133   -8.874  -19.978
  -0.386   -9.749  -20.412
  -3.550   -9.000  -20.522
  -4.881   -9.694  -20.268
  -5.965   -9.235  -21.231
  -5.674   -8.968  -22.425
  -7.141   -9.141  -20.814
  -0.757   -7.605  -19.921
   0.553   -7.175  -20.412
   1.643   -7.662  -19.469
   2.738   -8.022  -19.902
   0.621   -5.651  -20.492
  -0.416   -4.993  -21.385
  -0.309   -3.481  -21.261
  -1.497   -2.822  -21.815
  -1.858   -1.559  -21.641
  -1.195   -0.705  -20.904
  -2.963   -1.157  -22.192
   1.335   -7.712  -18.178
   2.288   -8.217  -17.184
   2.543   -9.696  -17.422
   3.676  -10.145  -17.311
   1.781   -8.030  -15.749
   1.530   -6.586  -15.357
   0.991   -6.488  -13.943
   0.607   -5.051  -13.623
   0.035   -4.857  -12.252
   1.511  -10.440  -17.795
   1.667  -11.857  -18.130
   2.553  -12.042  -19.358
   3.390  -12.942  -19.384
   0.307  -12.509  -18.409
  -0.682  -12.710  -17.252
  -2.044  -13.118  -17.803
  -0.193  -13.770  -16.276
   2.416  -11.185  -20.360
   3.273  -11.289  -21.543
   4.735  -11.087  -21.171
   5.607  -11.837  -21.603
   2.923  -10.230  -22.587
   1.555  -10.353  -23.217
   1.279   -9.220  -24.177
   0.859   -9.546  -25.366
   1.454   -8.050  -23.848
   5.020  -10.086  -20.350
   6.408   -9.847  -19.971
   6.907  -10.934  -19.043
   8.056  -11.317  -19.125
   6.610   -8.481  -19.319
   6.299   -7.234  -20.160
   6.825   -6.009  -19.418
   6.899   -7.271  -21.567
   6.056  -11.485  -18.195
   6.474  -12.590  -17.345
   6.935  -13.771  -18.205
   7.980  -14.373  -17.946
   5.327  -12.988  -16.439
   6.189  -14.051  -19.266
   6.547  -15.125  -20.192
   7.871  -14.833  -20.881
   8.767  -15.679  -20.902
   5.444  -15.314  -21.244
   5.734  -16.430  -22.243
   4.645  -16.597  -23.300
   4.500  -15.431  -24.190
   5.211  -15.170  -25.281
   6.264  -15.850  -25.653
   4.857  -14.172  -26.037
   8.008  -13.656  -21.468
   9.197  -13.357  -22.265
  10.455  -13.125  -21.435
  11.558  -13.505  -21.843
   8.955  -12.129  -23.141
   7.878  -12.358  -24.193
   7.737  -11.197  -25.164
   8.545  -10.242  -25.128
   6.844  -11.255  -26.040
  10.310  -12.501  -20.277
  11.457  -12.138  -19.448
  11.860  -13.224  -18.467
  12.993  -13.224  -17.986
  11.177  -10.840  -18.678
  10.831   -9.594  -19.513
  10.677   -8.370  -18.611
  11.860   -9.313  -20.589
  10.956  -14.147  -18.177
  11.249  -15.204  -17.221
  11.134  -14.708  -15.793
  11.760  -15.243  -14.877
  10.326  -13.674  -15.606
  10.033  -13.099  -14.290
   8.661  -13.630  -13.907
   7.918  -14.057  -14.778
   9.954  -11.567  -14.364
  11.245  -10.763  -14.579
  10.910   -9.289  -14.791
  12.192  -10.890  -13.390
   8.285  -13.579  -12.640
   6.900  -13.865  -12.266
   6.083  -12.602  -12.557
   6.639  -11.499  -12.503
   6.795  -14.231  -10.781
   7.536  -15.508  -10.378
   7.030  -16.764  -11.070
   7.866  -17.761  -11.152
   5.892  -16.838  -11.532
   4.767  -12.715  -12.832
   4.037  -11.465  -13.105
   4.022  -10.459  -11.960
   3.978   -9.254  -12.200
   2.609  -11.941  -13.386
   2.755  -13.351  -13.792
   3.871  -13.881  -12.944
   4.104  -10.920  -10.716
   4.188   -9.980   -9.599
   5.484   -9.188   -9.625
   5.478   -8.012   -9.317
   4.048  -10.688   -8.255
   3.758   -9.724   -7.111
   3.670  -10.454   -5.798
   4.989  -10.898   -5.327
   5.212  -11.640   -4.253
   4.254  -12.112   -3.501
   6.436  -11.916   -3.912
   6.584   -9.788  -10.051
   7.837   -9.042  -10.139
   7.699   -7.957  -11.194
   8.107   -6.828  -10.976
   9.005   -9.946  -10.518
   9.312  -11.016   -9.497
  10.482  -11.849   -9.933
  11.624  -11.605   -9.357
  10.363  -12.691  -10.817
   7.060   -8.277  -12.312
   6.830   -7.283  -13.364
   6.001   -6.135  -12.782
   6.297   -4.961  -13.006
   6.099   -7.909  -14.593
   5.833   -6.868  -15.676
   6.916   -9.065  -15.193
   4.992   -6.473  -11.988
   4.149   -5.471  -11.348
   4.925   -4.580  -10.373
   4.762   -3.363  -10.375
   2.996   -6.163  -10.606
   5.743   -5.191   -9.532
   6.528   -4.480   -8.523
   7.548   -3.573   -9.200
   7.693   -2.412   -8.818
   7.225   -5.508   -7.584
   8.312   -4.878   -6.734
   6.189   -6.171   -6.655
   8.215   -4.060  -10.236
   9.198   -3.243  -10.941
   8.486   -2.039  -11.564
   8.972   -0.912  -11.492
   9.905   -4.049  -12.036
  10.847   -5.161  -11.596
  10.885   -5.826  -10.401
  11.882   -5.769  -12.394
  12.458   -6.818  -11.619
  12.395   -5.524  -13.685
  11.825   -6.822  -10.408
  13.502   -7.630  -12.110
  13.443   -6.337  -14.182
  13.986   -7.385  -13.383
   7.295   -2.241  -12.114
   6.530   -1.123  -12.665
   6.076   -0.122  -11.605
   6.152    1.082  -11.825
   5.322   -1.626  -13.453
   5.440   -1.380  -14.927
   6.215   -2.224  -15.740
   4.806   -0.272  -15.504
   6.396   -1.934  -17.121
   4.959    0.016  -16.879
   5.767   -0.806  -17.685
   5.668   -0.590  -10.433
   5.292    0.315   -9.344
   6.489    1.141   -8.887
   6.355    2.326   -8.573
   4.769   -0.459   -8.133
   3.376   -1.038   -8.306
   2.888   -1.780   -7.078
   1.845   -2.546   -7.231
   3.451   -1.675   -5.999
   7.668    0.537   -8.879
   8.866    1.269   -8.485
   9.205    2.312   -9.544
   9.590    3.429   -9.211
  10.050    0.322   -8.260
   9.873   -0.551   -7.042
  10.342   -1.760   -7.123
   9.326   -0.131   -6.024
   9.011    2.005  -10.820
   9.239    3.016  -11.858
   8.202    4.128  -11.859
   8.556    5.278  -12.095
   9.361    2.388  -13.245
  10.608    1.542  -13.355
  11.064    1.324  -14.783
  12.331    0.580  -14.756
  13.536    1.096  -14.543
  13.782    2.374  -14.400
  14.534    0.275  -14.427
   6.952    3.847  -11.513
   5.959    4.921  -11.357
   6.340    5.850  -10.224
   6.249    7.072  -10.366
   4.564    4.366  -11.078
   3.941    3.713  -12.284
   2.605    3.086  -11.978
   1.564    4.071  -11.650
   0.328    3.790  -11.267
  -0.128    2.572  -11.173
  -0.462    4.771  -10.944
   6.814    5.282   -9.126
   7.280    6.083   -8.003
   8.490    6.917   -8.421
   8.577    8.101   -8.111
   7.628    5.172   -6.837
   9.411    6.317   -9.164
  10.590    7.038   -9.642
  10.203    8.189  -10.550
  10.713    9.289  -10.392
  11.526    6.079  -10.385
  12.862    6.674  -10.812
  13.749    6.937   -9.613
  15.107    7.314  -10.017
  16.147    7.457   -9.207
  16.098    7.275   -7.914
  17.303    7.752   -9.721
   9.278    7.964  -11.469
   8.829    9.021  -12.370
   8.118   10.131  -11.605
   8.231   11.314  -11.934
   7.901    8.443  -13.437
   7.720    9.380  -14.589
   6.627   10.137  -14.884
   8.684    9.683  -15.614
   8.106   10.675  -16.457
   9.986    9.223  -15.903
   6.838   10.906  -15.998
   8.801   11.236  -17.547
  10.681    9.770  -17.013
  10.080   10.782  -17.815
   7.412    9.769  -10.543
   6.773   10.772   -9.697
   7.822   11.625   -8.992
   7.730   12.856   -9.011
   5.848   10.109   -8.677
   4.998   11.115   -7.943
   4.129   10.453   -6.906
   3.259   11.514   -6.277
   2.539   10.979   -5.102
   8.832   10.994   -8.411
   9.906   11.712   -7.724
  10.725   12.586   -8.675
  11.059   13.729   -8.343
  10.860   10.706   -7.037
  11.846   11.382   -6.106
  10.092    9.795   -6.247
  11.029   12.061   -9.855
  11.797   12.763  -10.888
  11.111   14.051  -11.301
  11.925   11.836  -12.101
  12.704   12.393  -13.278
  12.627   11.402  -14.427
  13.408   11.852  -15.653
  12.902   13.145  -16.216
  11.777   15.100  -11.376
   9.900   14.013  -11.571
